5.380385853484539460e-01 6.580573812530100541e-01 -2.277607596902180009e-01
5.490439200487630123e-01 6.715176458695489847e-01 -2.324195025020640015e-01
5.434433231394090180e-01 6.460459466677399565e-01 -2.262078454196030097e-01
5.359818587484790342e-01 6.371757506036519469e-01 -2.231020168783729996e-01
5.383968646053139961e-01 6.224198490870429534e-01 -2.205138264273479864e-01
5.396607070104899595e-01 6.238809285449939956e-01 -2.210314645175530113e-01
5.444664838856290157e-01 6.119554018935710049e-01 -2.194785502469379923e-01
5.354776504252529712e-01 6.018523645981580517e-01 -2.158550836155020136e-01
5.425244800780399945e-01 5.928920416658429726e-01 -2.153374455252969888e-01
5.425244800780399945e-01 5.928920416658429726e-01 -2.153374455252969888e-01
5.532948509314099539e-01 5.881697486563329802e-01 -2.163727217057070107e-01
5.506475071470490201e-01 5.853555393326179690e-01 -2.153374455252969888e-01
5.507075371484679849e-01 5.692793244798179941e-01 -2.122316169840670064e-01
5.480211589184750265e-01 5.665023521652819971e-01 -2.111963408036570122e-01
5.558773480165689618e-01 5.587955615367860007e-01 -2.111963408036570122e-01
5.640520148991660099e-01 5.670131433240910290e-01 -2.143021693448869947e-01
4.709468328645710078e-01 6.465401343002159518e-01 1.396192514982680030e-02
4.615278962072790203e-01 6.336093316142119569e-01 1.368268664683030059e-02
4.631305555188189871e-01 6.175051091852630236e-01 1.347325776958289978e-02
4.667300157948719996e-01 6.223043716918850166e-01 1.357797220820660018e-02
4.680410115201780186e-01 6.062300665460079729e-01 1.336854333095919938e-02
4.753732466875960072e-01 6.157271433065200084e-01 1.357797220820660018e-02
4.763550187759529875e-01 5.997192494294060205e-01 1.336854333095919938e-02
4.676487912787429813e-01 5.887583231996249555e-01 1.312420964083720054e-02
4.759251574877350066e-01 5.820884808957980106e-01 1.312420964083720054e-02
4.733936406925879914e-01 5.789922655718839906e-01 1.305440001508809990e-02
4.865804905048800033e-01 5.784473563909019456e-01 1.319401926658629945e-02
4.762824907058350044e-01 5.662050842979730048e-01 1.291478076358979973e-02
4.840438635576360116e-01 5.595844409827930299e-01 1.291478076358979973e-02
4.840438635576360116e-01 5.595844409827930299e-01 1.291478076358979973e-02
4.944681305921119763e-01 5.557595417454960218e-01 1.298459038933890038e-02
4.918096997824770167e-01 5.527715872199819858e-01 1.291478076358979973e-02
5.086223852964469883e-01 6.781606564799179671e-01 -1.957074172791629929e-01
5.132778090542789995e-01 6.648230233690749502e-01 -1.939078088444119996e-01
5.085142098983229664e-01 6.586529721081090250e-01 -1.921082004096610063e-01
5.114868882316160326e-01 6.439494087654870080e-01 -1.898586898662220079e-01
5.126989424691319464e-01 6.454753552317550325e-01 -1.903085919749100130e-01
5.094375487387540202e-01 6.230763896196479523e-01 -1.858095708880329877e-01
5.106710536993810390e-01 6.245850491586779629e-01 -1.862594729967199936e-01
5.168329468258630044e-01 6.144115056420299537e-01 -1.853596687793450104e-01
5.180873957259259921e-01 6.159027957042679802e-01 -1.858095708880329877e-01
5.150559906037039948e-01 5.954363649163250116e-01 -1.817604519098429960e-01
5.086815352744500363e-01 5.880671029742909894e-01 -1.795109413664039977e-01
5.155473049936749597e-01 5.794515687559269601e-01 -1.790610392577169918e-01
5.181379949685179787e-01 5.823633856843489776e-01 -1.799608434750920027e-01
5.275340979469009817e-01 5.765099638178460273e-01 -1.804107455837800078e-01
5.222719124312209527e-01 5.707592409867450201e-01 -1.786111371490289867e-01
5.194097562563999571e-01 5.521488321691350176e-01 -1.750119202795270001e-01
5.260859742031399611e-01 5.592458608602549619e-01 -1.772614308229659985e-01
5.351979164489130136e-01 5.532466650386590468e-01 -1.777113329316530044e-01
5.365528478829609815e-01 5.546472895071109521e-01 -1.781612350403410094e-01
4.715489893342549865e-01 6.473668058002900461e-01 4.197343690684100098e-02
4.703730566925229950e-01 6.457524247384439642e-01 4.186876499435510102e-02
4.817400350135709886e-01 6.423176561665669970e-01 4.207810881932679686e-02
4.745498852372500020e-01 6.327308254775130258e-01 4.145007734441150116e-02
4.723529769560390057e-01 6.118151392827659851e-01 4.050803013203849862e-02
4.772351782682460186e-01 6.181388099730269481e-01 4.092671778198209848e-02
4.857125053339790277e-01 6.115000947945820053e-01 4.092671778198209848e-02
4.919236626911909771e-01 6.193197891014180501e-01 4.145007734441150116e-02
4.829306135896360153e-01 5.906566249331139939e-01 3.998467056960910287e-02
4.816663973236939844e-01 5.891104034018760371e-01 3.987999865712320291e-02
4.898447121063940202e-01 5.823278661789349497e-01 3.987999865712320291e-02
4.924160754245380245e-01 5.853847053714750226e-01 4.008934248209500284e-02
4.978270913127070263e-01 5.755186989683640508e-01 3.987999865712320291e-02
4.926005601703160042e-01 5.694765079030790211e-01 3.946131100717970019e-02
4.991760811843489742e-01 5.610510626784399602e-01 3.935663909469380023e-02
4.951932933025590122e-01 5.565745914336649447e-01 3.904262335723610033e-02
5.069609196178890276e-01 5.540267872037909491e-01 3.935663909469380023e-02
5.083092199360219610e-01 5.555002627016729644e-01 3.946131100717970019e-02
5.016656273167260371e-01 6.887124818024420447e-01 -1.656222079868409913e-01
4.970419809820100232e-01 6.823649013250000506e-01 -1.640957360238289864e-01
5.006310560024580525e-01 6.675055904096349746e-01 -1.621876460700630018e-01
5.006310560024580525e-01 6.675055904096349746e-01 -1.621876460700630018e-01
4.967046240681060043e-01 6.433566074145969926e-01 -1.579898481717789960e-01
4.919055455746950134e-01 6.371406015458570549e-01 -1.564633762087669910e-01
4.945380603275509879e-01 6.226112514066050041e-01 -1.545552862550010065e-01
5.006434684797429480e-01 6.302978100659459848e-01 -1.564633762087669910e-01
5.095037686933899801e-01 6.231573810784779566e-01 -1.564633762087669910e-01
4.995622317432750203e-01 6.109982126671900104e-01 -1.534104322827420097e-01
5.029892354564340362e-01 5.979540882145939484e-01 -1.518839603197300048e-01
5.004616513586630511e-01 5.949492938014560028e-01 -1.511207243382229892e-01
5.124702007890119537e-01 5.924470330460299694e-01 -1.522655783104830129e-01
5.111858143208689587e-01 5.909622033892729664e-01 -1.518839603197300048e-01
5.063371795271279785e-01 5.690998093764559895e-01 -1.480677804121990071e-01
5.115571504500879829e-01 5.749668177205430331e-01 -1.495942523752110120e-01
5.155590425608329586e-01 5.634231533648209611e-01 -1.484493984029519875e-01
5.168843871432520221e-01 5.648715419338820043e-01 -1.488310163937049957e-01
5.259687026713240066e-01 5.591211975504899456e-01 -1.492126343844580039e-01
5.205879486798009603e-01 5.534012876011249471e-01 -1.476861624214459989e-01
4.879952515425640125e-01 6.699450839303709992e-01 7.251357796605159556e-02
4.821299239999849995e-01 6.618928593638999658e-01 7.164202053857500474e-02
4.925198318607290071e-01 6.566906651373140003e-01 7.181633202407029792e-02
4.829563399799379764e-01 6.439393900861040132e-01 7.042184014010779980e-02
4.979879332689500226e-01 6.450188135099550468e-01 7.129339756758440450e-02
4.809418915433629760e-01 6.229399299179270155e-01 6.885303677064999461e-02
4.870066571197499972e-01 6.131294000543530132e-01 6.850441379965929722e-02
4.832890490501339786e-01 6.084490229547020457e-01 6.798147934317340380e-02
4.918422137954069906e-01 6.015561114269789567e-01 6.798147934317340380e-02
4.968867493215129993e-01 6.077259176980239763e-01 6.867872528515460429e-02
5.001933059002090509e-01 5.946302844616420114e-01 6.798147934317340380e-02
4.924980242709749989e-01 5.854821262391549652e-01 6.693561043020150592e-02
5.044339820934159446e-01 5.831566705707400544e-01 6.745854488668739934e-02
5.031305351112620450e-01 5.816498057889030182e-01 6.728423340119210616e-02
5.151756685821510251e-01 5.790338664431069482e-01 6.780716785767809673e-02
5.085538733561599800e-01 5.715912717587480207e-01 6.693561043020150592e-02
5.097598973709930315e-01 5.570856199303370060e-01 6.606405300272490122e-02
5.124499232146400018e-01 5.600253857347180508e-01 6.641267597371550147e-02
5.242181085586690159e-01 5.572602612025260305e-01 6.693561043020150592e-02
5.228529572342970333e-01 5.558090626056449990e-01 6.676129894470619885e-02
4.873174797264570035e-01 6.690146037775569487e-01 -1.310920817037130037e-01
4.756869909501689753e-01 6.530476681265410255e-01 -1.279633924029089931e-01
4.740915327158010117e-01 6.321196910567119520e-01 -1.251475720321849894e-01
4.823881345383270181e-01 6.431817856502040076e-01 -1.273376545427480078e-01
4.816639115731859988e-01 6.238751262788310159e-01 -1.248347031021039971e-01
4.804567338499449725e-01 6.223115294711150103e-01 -1.245218341720240041e-01
4.816195588071520151e-01 6.063471758113180288e-01 -1.226446205915410065e-01
4.767050735132010164e-01 6.001599597316109591e-01 -1.213931448712189942e-01
4.876424467112400185e-01 5.964195137840989647e-01 -1.220188827313799934e-01
4.863920814632630152e-01 5.948902329795240362e-01 -1.217060138013000004e-01
4.946506346281119848e-01 5.880411515077870188e-01 -1.217060138013000004e-01
4.844778709339599976e-01 5.759477602171390043e-01 -1.192030623606560036e-01
4.923727935232680153e-01 5.692131956674360005e-01 -1.192030623606560036e-01
4.884958423931640148e-01 5.647312020007629885e-01 -1.182644555704149975e-01
5.015853068281930227e-01 5.637589220063620177e-01 -1.195159312907359966e-01
5.055244584524980489e-01 5.681863480954170154e-01 -1.204545380809780020e-01
4.949509457141699764e-01 6.410851557275869528e-01 9.944538421860030231e-02
4.925247155881199990e-01 6.379425814348039792e-01 9.895790684497980660e-02
5.049776294599009896e-01 6.357544121116339708e-01 9.968912290541059873e-02
4.963349805449390195e-01 6.248735297527550081e-01 9.798295209773859316e-02
4.988364548968010070e-01 6.101105387642949962e-01 9.676425866368709716e-02
5.000929698965409509e-01 6.116473411289410356e-01 9.700799735049739358e-02
5.085841533196620023e-01 6.046053319663730052e-01 9.700799735049739358e-02
5.060284540567490108e-01 6.015671142177989594e-01 9.652051997687680074e-02
5.090798667021679824e-01 5.885275985741470484e-01 9.554556522963560117e-02
5.090798667021679824e-01 5.885275985741470484e-01 9.554556522963560117e-02
5.119693376944529639e-01 5.754300973130359598e-01 9.457061048239440160e-02
5.146083548990639800e-01 5.783962318352680043e-01 9.505808785601499444e-02
5.253140391051189795e-01 5.740837963956260115e-01 9.554556522963560117e-02
5.199536917673119873e-01 5.682257984732219658e-01 9.457061048239440160e-02
5.195778655269499557e-01 5.523275375867620074e-01 9.310817836153270632e-02
5.327597421897619645e-01 5.507262670023419515e-01 9.408313310877390589e-02
5.341399487757459985e-01 5.521530189893949503e-01 9.432687179558410517e-02
4.791953620267550007e-01 6.578641411310069964e-01 -9.993286159222089515e-02
4.780265928510800122e-01 6.562595944453220032e-01 -9.968912290541059873e-02
4.811875204476530055e-01 6.415809728203959450e-01 -9.847042947135919988e-02
4.728501129151450044e-01 6.304644708160820343e-01 -9.676425866368709716e-02
4.755411047057709895e-01 6.159445613853280488e-01 -9.554556522963560117e-02
4.755411047057709895e-01 6.159445613853280488e-01 -9.554556522963560117e-02
4.889269957606859895e-01 6.155470591594299767e-01 -9.652051997687680074e-02
4.852230033685600019e-01 6.108838238627679607e-01 -9.578930391644589759e-02
4.850147898996610141e-01 5.932057127531940033e-01 -9.408313310877390589e-02
4.837582748999210147e-01 5.916689103885479639e-01 -9.383939442196359559e-02
4.906942584792720052e-01 5.833378077263500217e-01 -9.359565573515329917e-02
4.932499577421839976e-01 5.863760254749249556e-01 -9.408313310877390589e-02
5.012878279261140380e-01 5.795195230857670410e-01 -9.408313310877390589e-02
4.934957891500609817e-01 5.705114475973870336e-01 -9.262070098791209960e-02
4.948157258644840240e-01 5.561502229185270041e-01 -9.140200755386060361e-02
5.000937602737050014e-01 5.620824919629909822e-01 -9.237696230110180318e-02
5.119131707606010551e-01 5.594388015896150090e-01 -9.310817836153270632e-02
5.105730839261489740e-01 5.579743021090139976e-01 -9.286443967472239602e-02
4.633608758637329794e-01 6.361257407511929918e-01 -6.885303677064999461e-02
4.574955483211540219e-01 6.280735161847219583e-01 -6.798147934317340380e-02
4.638293562183570251e-01 6.184368399836840391e-01 -6.763285637218270641e-02
4.721974116140489897e-01 6.295942056534929998e-01 -6.885303677064999461e-02
4.748540194985100271e-01 6.150546143493460516e-01 -6.798147934317340380e-02
4.638958498177749856e-01 6.008610463258989842e-01 -6.641267597371550147e-02
4.684186167716680171e-01 5.897275145560959553e-01 -6.588974151722959416e-02
4.733754275311570225e-01 5.959680173556309857e-01 -6.658698745921079465e-02
4.817531427431929747e-01 5.892164988848870300e-01 -6.658698745921079465e-02
4.830142766247200181e-01 5.907589504526480351e-01 -6.676129894470619885e-02
4.860852895799470108e-01 5.778586610537499446e-01 -6.606405300272490122e-02
4.783900079507130143e-01 5.687105028312630095e-01 -6.501818408975300334e-02
4.913995122718810005e-01 5.680880227523740222e-01 -6.571543003173430098e-02
4.887926183075739783e-01 5.650742931887009490e-01 -6.536680706074360359e-02
4.992833600397709737e-01 5.611716392006460552e-01 -6.571543003173430098e-02
4.953102829041760025e-01 5.567060823900310540e-01 -6.519249557524829652e-02
4.680211914090610104e-01 6.425236626147520225e-01 -4.165942116938330109e-02
4.727249219759859789e-01 6.489811868621360169e-01 -4.207810881932679686e-02
4.745498852372500020e-01 6.327308254775130258e-01 -4.145007734441150116e-02
4.649630188688200216e-01 6.199483845587759889e-01 -4.061270204452439858e-02
4.772351782682460186e-01 6.181388099730269481e-01 -4.092671778198209848e-02
4.747940776121419848e-01 6.149769746278960225e-01 -4.071737395701029855e-02
4.869547368054220060e-01 6.130640336559489700e-01 -4.103138969446799844e-02
4.757746535624399753e-01 5.989885839036449555e-01 -4.008934248209500284e-02
4.804021810577530083e-01 5.875641818706369701e-01 -3.977532674463730294e-02
4.753453159939869943e-01 5.813792957456830335e-01 -3.935663909469380023e-02
4.885590304473220180e-01 5.807994465826650243e-01 -3.977532674463730294e-02
4.885590304473220180e-01 5.807994465826650243e-01 -3.977532674463730294e-02
4.886806618135229874e-01 5.649448646041159705e-01 -3.914729526972200030e-02
4.886806618135229874e-01 5.649448646041159705e-01 -3.914729526972200030e-02
4.991760811843489742e-01 5.610510626784399602e-01 -3.935663909469380023e-02
4.991760811843489742e-01 5.610510626784399602e-01 -3.935663909469380023e-02
5.069609196178890276e-01 5.540267872037909491e-01 -3.935663909469380023e-02
5.056126192997569824e-01 5.525533117059080457e-01 -3.925196718220790026e-02
4.615278962072790203e-01 6.336093316142119569e-01 -1.368268664683030059e-02
4.603505291251179798e-01 6.319929812784610412e-01 -1.364778183395570083e-02
4.691296559789079890e-01 6.255038800296319756e-01 -1.364778183395570083e-02
4.691296559789079890e-01 6.255038800296319756e-01 -1.364778183395570083e-02
4.741512074930259724e-01 6.141442971797680395e-01 -1.354306739533200042e-02
4.692630507147479979e-01 6.078129126727600529e-01 -1.340344814383370026e-02
4.788425123465849809e-01 6.028509426379139446e-01 -1.343835295670830002e-02
4.800862591319010053e-01 6.044167892421690169e-01 -1.347325776958289978e-02
4.860512246683260096e-01 5.944733421914529803e-01 -1.340344814383370026e-02
4.797224326804570005e-01 5.867328038816690405e-01 -1.322892407946089921e-02
4.878677404797600037e-01 5.799776404025189791e-01 -1.322892407946089921e-02
4.878677404797600037e-01 5.799776404025189791e-01 -1.322892407946089921e-02
4.984343567985389800e-01 5.762207351741730488e-01 -1.329873370520999985e-02
5.010508101150660254e-01 5.792455159362429606e-01 -1.336854333095919938e-02
4.984557768065649985e-01 5.602414735337659657e-01 -1.308930482796260078e-02
4.931389151872940246e-01 5.542655644827390038e-01 -1.294968557646439949e-02
5.035294917864610031e-01 5.502767882129390165e-01 -1.301949520221350014e-02
5.116291618956260168e-01 5.591284255568470529e-01 -1.322892407946089921e-02
5.351621557273870122e-01 6.603987457760279733e-01 -2.277607596902180009e-01
5.290807675941210375e-01 6.528942145740279646e-01 -2.251725692391929878e-01
5.295960470334739600e-01 6.349645833432090436e-01 -2.215491026077580083e-01
5.209344294418050136e-01 6.245796485689040223e-01 -2.179256359763220019e-01
5.244655621026039771e-01 6.114723681784359766e-01 -2.158550836155020136e-01
5.244655621026039771e-01 6.114723681784359766e-01 -2.158550836155020136e-01
5.303958024302020124e-01 6.011927670040380089e-01 -2.148198074350919917e-01
5.240054915575490524e-01 5.939494806545919658e-01 -2.122316169840670064e-01
5.296509153479590504e-01 5.837139826166699574e-01 -2.111963408036570122e-01
5.270545873315479746e-01 5.808526395646279594e-01 -2.101610646232469903e-01
5.376486221091080209e-01 5.763558490857220162e-01 -2.111963408036570122e-01
5.389663883397679545e-01 5.777684859707360454e-01 -2.117139788938620093e-01
5.429686760394120126e-01 5.660047206132049480e-01 -2.101610646232469903e-01
5.336071471421800494e-01 5.562460185336669527e-01 -2.065375979918120108e-01
5.481050184314529838e-01 5.556179383159060015e-01 -2.091257884428369962e-01
5.508184096118069473e-01 5.583685221689550504e-01 -2.101610646232469903e-01
5.584646496123120141e-01 5.507209475313440405e-01 -2.101610646232469903e-01
4.607908801907060203e-01 5.686233902869399781e-01 1.277516151209149957e-02
4.683448290462919883e-01 5.779450852096770230e-01 1.298459038933890038e-02
4.713449475951420053e-01 5.651238334144119690e-01 1.284497113784070083e-02
4.636599756234819902e-01 5.559098578696120008e-01 1.263554226059330002e-02
4.738843614028530049e-01 5.524999421278290468e-01 1.270535188634240066e-02
4.764881216303409883e-01 5.555356560955649892e-01 1.277516151209149957e-02
4.881670019077459788e-01 5.533272874564360011e-01 1.287987595071519997e-02
4.981256509719059755e-01 6.146951005786149835e-01 -1.826602561272180070e-01
4.932180090904100256e-01 6.086389912133080005e-01 -1.808606476924670137e-01
5.105102056604829963e-01 6.120814191220269596e-01 -1.840099624532819944e-01
5.080138232367149564e-01 6.090883559478359466e-01 -1.831101582359060120e-01
5.049450838690660026e-01 5.887135181872490408e-01 -1.790610392577169918e-01
4.960641401829269936e-01 5.783592603296839885e-01 -1.759117244969020111e-01
5.028017069868320199e-01 5.699154255986890183e-01 -1.754618223882150052e-01
5.131155881557919463e-01 5.816059984314829734e-01 -1.790610392577169918e-01
5.211860595419239850e-01 5.743850934339329584e-01 -1.790610392577169918e-01
5.080909324177550479e-01 5.599533071667489592e-01 -1.745620181708389951e-01
4.702891381925899950e-01 5.803443941067549794e-01 3.914729526972200030e-02
4.740615109588400267e-01 5.849995630434400296e-01 3.946131100717970019e-02
4.758877590596820029e-01 5.705704835639849870e-01 3.893795144475020037e-02
4.848426362462889827e-01 5.813070249213719842e-01 3.967065483215140298e-02
4.915111219318800129e-01 5.730509139796089446e-01 3.956598291966550301e-02
4.837093580916910218e-01 5.639548677259650367e-01 3.893795144475020037e-02
4.862509116133340026e-01 5.511554383945670432e-01 3.851926379480669765e-02
4.862509116133340026e-01 5.511554383945670432e-01 3.851926379480669765e-02
5.006094275890270451e-01 5.517081425630510072e-01 3.904262335723610033e-02
4.992673111611740100e-01 5.502290322612739537e-01 3.893795144475020037e-02
4.956554535839080011e-01 6.116468370954909473e-01 -1.530288142919890015e-01
4.894752110205179974e-01 6.040203179297120029e-01 -1.511207243382229892e-01
4.929351993242079844e-01 5.910096859811230230e-01 -1.495942523752110120e-01
4.941926870775860126e-01 5.925173637514830061e-01 -1.499758703659639925e-01
5.023151423609699684e-01 5.856472795658239638e-01 -1.499758703659639925e-01
5.061496090965500461e-01 5.901178694861739515e-01 -1.511207243382229892e-01
5.026500673276019793e-01 5.697435451541189577e-01 -1.476861624214459989e-01
4.987535551777759757e-01 5.653269285250169807e-01 -1.465413084491860030e-01
5.065981352075129562e-01 5.583081356404100415e-01 -1.465413084491860030e-01
5.145137310701299871e-01 5.670317002597919931e-01 -1.488310163937049957e-01
5.182653064639419771e-01 5.555770599521390185e-01 -1.476861624214459989e-01
4.854495813961510198e-01 5.990526259387169983e-01 6.745854488668739934e-02
4.867039730793449870e-01 6.006005655406260191e-01 6.763285637218270641e-02
4.925935471492279838e-01 5.906000586205150116e-01 6.728423340119210616e-02
4.874889508057119736e-01 5.844798507591619785e-01 6.658698745921079465e-02
4.967983484032689745e-01 5.792152708510019954e-01 6.676129894470619885e-02
4.929069775280480181e-01 5.746783366145710170e-01 6.623836448822019440e-02
5.061551429102200128e-01 5.737164764601689892e-01 6.693561043020150592e-02
4.969283564509189843e-01 5.632581031913640457e-01 6.571543003173430098e-02
5.007276967544049828e-01 5.518384838190429909e-01 6.519249557524829652e-02
5.034053849723429952e-01 5.547894917539040183e-01 6.554111854623889677e-02
5.137249065164779527e-01 5.507097805445519967e-01 6.588974151722959416e-02
4.750859969423659734e-01 5.862637952978040357e-01 -1.195159312907359966e-01
4.775733581829019747e-01 5.893332392522430130e-01 -1.201416691508969958e-01
4.858568600624599831e-01 5.825230389125249930e-01 -1.201416691508969958e-01
4.770000943842380159e-01 5.719041293490160216e-01 -1.179515866403340052e-01
4.822678801832139817e-01 5.622742542137260102e-01 -1.173258487801730060e-01
4.822678801832139817e-01 5.622742542137260102e-01 -1.173258487801730060e-01
4.952988739298019860e-01 5.614111181640190074e-01 -1.185773245004950044e-01
4.926851595555020169e-01 5.584485265114389474e-01 -1.179515866403340052e-01
4.886708203871890088e-01 6.030276868931579992e-01 9.530182654282530474e-02
4.911704153763820080e-01 6.061122274910769603e-01 9.578930391644589759e-02
5.009612331958329667e-01 6.006325811702789563e-01 9.603304260325619401e-02
4.996897579846760196e-01 5.991081329947199885e-01 9.578930391644589759e-02
4.988559515405809885e-01 5.816142223819650292e-01 9.408313310877390589e-02
4.975635786091289758e-01 5.801074497851209655e-01 9.383939442196359559e-02
5.069279277231989456e-01 5.745924122007699530e-01 9.408313310877390589e-02
5.069279277231989456e-01 5.745924122007699530e-01 9.408313310877390589e-02
5.149010773018839471e-01 5.674585840903240141e-01 9.408313310877390589e-02
5.095653148427969903e-01 5.615781842551910152e-01 9.310817836153270632e-02
5.199678959978969450e-01 5.574022249318949518e-01 9.359565573515329917e-02
4.774226429358209844e-01 5.891472542025230075e-01 -9.310817836153270632e-02
4.761728454412250122e-01 5.876049839035629718e-01 -9.286443967472239602e-02
4.818891050284779820e-01 5.777658585368929955e-01 -9.237696230110180318e-02
4.818891050284779820e-01 5.777658585368929955e-01 -9.237696230110180318e-02
4.911017139518670249e-01 5.725735868008979823e-01 -9.262070098791209960e-02
4.859322222260579749e-01 5.665464964135209502e-01 -9.164574624067090003e-02
4.924817950678749834e-01 5.582180170344269721e-01 -9.140200755386060361e-02
4.911685102810269821e-01 5.567294356556690138e-01 -9.115826886705029330e-02
5.002277305393949547e-01 5.512874845437090165e-01 -9.140200755386060361e-02
4.741600562474029834e-01 5.851211695215380315e-01 -6.588974151722959416e-02
4.741600562474029834e-01 5.851211695215380315e-01 -6.588974151722959416e-02
4.708990126892880212e-01 5.645891752097670357e-01 -6.432093814777170571e-02
4.760036090328029768e-01 5.707093830711189586e-01 -6.501818408975300334e-02
4.825299885274569878e-01 5.625798453174220004e-01 -6.484387260425769628e-02
4.812328649023829841e-01 5.610675339052789701e-01 -6.466956111876240310e-02
4.903377946942750198e-01 5.557878365707880075e-01 -6.484387260425769628e-02
4.665167654263390196e-01 5.756892251700700402e-01 -3.883327953226430040e-02
4.665167654263390196e-01 5.756892251700700402e-01 -3.883327953226430040e-02
4.835633680767740250e-01 5.797732332988879689e-01 -3.956598291966550301e-02
4.848426362462889827e-01 5.813070249213719842e-01 -3.967065483215140298e-02
4.798084761715969981e-01 5.594068445991420280e-01 -3.862393570729250047e-02
4.811087701449620058e-01 5.609228523080830309e-01 -3.872860761977840044e-02
4.862509116133340026e-01 5.511554383945670432e-01 -3.851926379480669765e-02
4.915362476091310051e-01 5.571462583771169541e-01 -3.893795144475020037e-02
5.006094275890270451e-01 5.517081425630510072e-01 -3.904262335723610033e-02
4.771577693778080165e-01 5.888203959528699460e-01 -1.322892407946089921e-02
4.721218034740840008e-01 5.826059326710459896e-01 -1.308930482796260078e-02
4.739066049190289731e-01 5.681951585960119955e-01 -1.291478076358979973e-02
4.777490909048590084e-01 5.728021463684129788e-01 -1.301949520221350014e-02
4.882050426540380239e-01 5.691963689503739543e-01 -1.308930482796260078e-02
4.908088028815260073e-01 5.722320829181090085e-01 -1.315911445371180030e-02
4.855211102984899885e-01 5.503282235677829926e-01 -1.281006632496609933e-02
5.426222279144069516e-01 6.890547888419850109e-01 -2.350076929530889869e-01
4.573129933137219938e-01 6.924990949547670249e-01 1.448549734294530059e-02
4.521942708952300105e-01 6.646348258921730423e-01 1.403173477557589921e-02
4.512117314139539870e-01 6.434405964181669768e-01 1.371759145970479973e-02
4.512117314139539870e-01 6.434405964181669768e-01 1.371759145970479973e-02
4.601515827481379994e-01 6.370779768434380319e-01 1.371759145970479973e-02
4.521881408429149762e-01 6.082062814939750428e-01 1.322892407946089921e-02
4.594205508588299902e-01 6.002455125231359601e-01 1.319401926658629945e-02
4.606359491415260021e-01 6.018334636144669902e-01 1.322892407946089921e-02
4.602298031642729770e-01 5.844278644039789805e-01 1.298459038933890038e-02
4.540439187131399823e-01 5.765726511727430337e-01 1.281006632496609933e-02
4.953129016822189756e-01 6.662103467520720246e-01 -1.916582983009730012e-01
4.929874889982649999e-01 6.630825986452539844e-01 -1.907584940835979903e-01
4.927220885957219743e-01 6.437548822048400066e-01 -1.871592772140960037e-01
4.962753728884790050e-01 6.483973452976630192e-01 -1.885089835401589919e-01
5.015511293655450231e-01 6.369002037877240507e-01 -1.871592772140960037e-01
4.894946118327189732e-01 6.215901027351340424e-01 -1.826602561272180070e-01
4.651252326322670161e-01 6.836407444892830254e-01 4.333417176915749930e-02
4.632759485163310265e-01 6.606445086997619898e-01 4.228745264429859679e-02
4.552488900024350138e-01 6.491976979054590036e-01 4.155474925689740112e-02
4.630992868562059939e-01 6.411590610772149867e-01 4.145007734441150116e-02
4.619298442126300031e-01 6.395399725391409662e-01 4.134540543192560119e-02
4.730870080244700127e-01 6.363158694018650197e-01 4.155474925689740112e-02
4.647454235001090006e-01 6.250961941227389795e-01 4.082204586949619851e-02
4.673582402356589727e-01 6.106163207495789447e-01 4.029868630706680277e-02
4.661443227285529955e-01 6.090303043320479670e-01 4.019401439458090280e-02
4.732614494304249741e-01 6.009762433760309497e-01 4.008934248209500284e-02
4.744971190111830217e-01 6.025453719488149673e-01 4.019401439458090280e-02
4.892043256288869935e-01 6.976191023814859449e-01 -1.656222079868409913e-01
4.908501990927849890e-01 6.795800851181480473e-01 -1.629508820515689904e-01
4.816539424353090126e-01 6.668479055374799680e-01 -1.598979381255450083e-01
4.908024341320990080e-01 6.601436359105540275e-01 -1.598979381255450083e-01
4.872883355583609855e-01 6.554170704983059981e-01 -1.587530841532850123e-01
4.880391398656889757e-01 6.376364816341140163e-01 -1.560817582180140106e-01
4.784931420199060037e-01 6.251643744138869474e-01 -1.530288142919890015e-01
4.834233212528279977e-01 6.138804077884220112e-01 -1.518839603197300048e-01
4.858525841736969775e-01 6.169652339582130107e-01 -1.526471963012359934e-01
4.781613734750789768e-01 6.818715425877780456e-01 7.286220093704219580e-02
4.758735200134759924e-01 6.786089993218079597e-01 7.251357796605159556e-02
4.759692643259080258e-01 6.589774920374009692e-01 7.111908608208909743e-02
4.701363076552469988e-01 6.509017874781189983e-01 7.024752865461250662e-02
4.814435333622890112e-01 6.475556405122959713e-01 7.059615162560310686e-02
4.754997860368290197e-01 6.395611264318969980e-01 6.972459419812650216e-02
4.807502307291889876e-01 6.281133225325139513e-01 6.920165974164059486e-02
4.734844841690499795e-01 6.186204259703099728e-01 6.815579082866869698e-02
4.782708377195230010e-01 6.073374700493999745e-01 6.763285637218270641e-02
4.758055241230300103e-01 6.042068645336809984e-01 6.728423340119210616e-02
4.733634036338890128e-01 6.957492025166099880e-01 -1.332821642142769936e-01
4.611404049485069989e-01 6.777838475220500092e-01 -1.298406059833920045e-01
4.695417893934449860e-01 6.695797736991839777e-01 -1.295277370533109984e-01
4.650051537471320273e-01 6.631104039049889876e-01 -1.282762613329890000e-01
4.730616639679249835e-01 6.549519312809429783e-01 -1.279633924029089931e-01
4.580254741596540002e-01 6.341343882328940307e-01 -1.238960963118630049e-01
4.655465699422399739e-01 6.261737595307850235e-01 -1.235832273817819987e-01
4.631893721197479774e-01 6.230032594825279935e-01 -1.229574895216209995e-01
4.718427061375909948e-01 6.164753980778919784e-01 -1.229574895216209995e-01
4.718427061375909948e-01 6.164753980778919784e-01 -1.229574895216209995e-01
4.717426919328929769e-01 5.990476325065750007e-01 -1.207674070110579950e-01
4.692984292803910051e-01 5.959437587630179722e-01 -1.201416691508969958e-01
4.773114630789410118e-01 6.419978850673560000e-01 9.822669078454890346e-02
4.874351495673109880e-01 6.368473517932059513e-01 9.847042947135919988e-02
4.814025363300920013e-01 6.289655776373489493e-01 9.725173603730770389e-02
4.875724586807579919e-01 6.191492354685319555e-01 9.676425866368709716e-02
4.838880320408530111e-01 6.144705258806090198e-01 9.603304260325619401e-02
4.701083428107730167e-01 6.909649163752640266e-01 -1.026139871471340032e-01
4.678750490206979862e-01 6.876824227107739551e-01 -1.021265097735139932e-01
4.661524813633369790e-01 6.647465252960359505e-01 -9.968912290541059873e-02
4.615935328903459922e-01 6.582453367845839676e-01 -9.871416815816949630e-02
4.660898038516290143e-01 6.452994195777359554e-01 -9.773921341092829673e-02
4.684144412773230126e-01 6.485178705481989825e-01 -9.822669078454890346e-02
4.713894846288300133e-01 6.340326507613089912e-01 -9.700799735049739358e-02
4.619143191086519940e-01 6.212882758716340437e-01 -9.505808785601499444e-02
4.693373098556529732e-01 6.132020293256360555e-01 -9.481434916920469802e-02
4.657177419133219920e-01 6.084729648321229867e-01 -9.408313310877390589e-02
4.765191787610429941e-01 6.051131067047620382e-01 -9.457061048239440160e-02
4.740628943344389890e-01 6.019939669794800441e-01 -9.408313310877390589e-02
4.622297735405930252e-01 6.999444680514910200e-01 -7.338513539352820025e-02
4.505421549257360159e-01 6.622065469854889752e-01 -7.007321716911719955e-02
4.518510586666419915e-01 6.443522950291209472e-01 -6.885303677064999461e-02
4.518510586666419915e-01 6.443522950291209472e-01 -6.885303677064999461e-02
4.573038029797940052e-01 6.331352374476989509e-01 -6.833010231416400404e-02
4.503042549750009838e-01 6.234443919765609854e-01 -6.728423340119210616e-02
4.588572935255399998e-01 6.171764870067799613e-01 -6.728423340119210616e-02
4.588572935255399998e-01 6.171764870067799613e-01 -6.728423340119210616e-02
4.698516108889799758e-01 6.138739776892080391e-01 -6.763285637218270641e-02
4.601639488087950203e-01 6.012167822729349576e-01 -6.623836448822019440e-02
4.647116129388150219e-01 5.901191397129480487e-01 -6.571543003173430098e-02
4.647116129388150219e-01 5.901191397129480487e-01 -6.571543003173430098e-02
4.545545949696129795e-01 6.883221124837940463e-01 -4.322949985667159933e-02
4.523533620641910225e-01 6.849888334887149766e-01 -4.302015603169979940e-02
4.561373054316439912e-01 6.704302953204079873e-01 -4.249679646927039672e-02
4.527668327314099961e-01 6.654763768820789460e-01 -4.218278073181269683e-02
4.506619994230650073e-01 6.426566631658570117e-01 -4.113606160695389841e-02
4.529554447127500105e-01 6.459271805356580076e-01 -4.134540543192560119e-02
4.584215162819009759e-01 6.346827069249200148e-01 -4.103138969446799844e-02
4.584215162819009759e-01 6.346827069249200148e-01 -4.103138969446799844e-02
4.623621136360059891e-01 6.218905726144170476e-01 -4.061270204452439858e-02
4.599788037719019784e-01 6.186849511060960038e-01 -4.040335821955259865e-02
4.649304052214470184e-01 6.074442879145159901e-01 -4.008934248209500284e-02
4.661443227285529955e-01 6.090303043320479670e-01 -4.019401439458090280e-02
4.782041277534579971e-01 6.072527576671650218e-01 -4.050803013203849862e-02
4.720257798496659829e-01 5.994071148032480423e-01 -3.998467056960910287e-02
4.518031982135560232e-01 6.841557323649509748e-01 -1.431097327857249954e-02
4.592485815918109782e-01 6.549013704001700464e-01 -1.396192514982680030e-02
4.507846294097540008e-01 6.241094684089659728e-01 -1.343835295670830002e-02
4.519554985770519728e-01 6.257305319632749940e-01 -1.347325776958289978e-02
4.629261178022460177e-01 6.226491747220640471e-01 -1.354306739533200042e-02
4.629261178022460177e-01 6.226491747220640471e-01 -1.354306739533200042e-02
4.618513474242210148e-01 6.034214147057980204e-01 -1.326382889233550071e-02
4.618513474242210148e-01 6.034214147057980204e-01 -1.326382889233550071e-02
4.688900413958589919e-01 5.954251629277099722e-01 -1.322892407946089921e-02
4.701272182860850024e-01 5.969962055739570506e-01 -1.326382889233550071e-02
